# .PCD v.7 - Point Cloud Data file format
VERSION .7
FIELDS x y z 
SIZE 4 4 4 
TYPE F F F 
COUNT 1 1 1 
WIDTH 1103
HEIGHT 1
VIEWPOINT 0 0 0 1 0 0 0
POINTS 1103
DATA ascii
1793136.934,12036354.052,336.4888916015625
1793136.934,12036354.052,336.5598449707031
1793136.934,12036354.052,336.6292419433594
1793138.788,12036354.052,336.6988220214844
1793138.788,12036354.052,336.7685852050781
1793138.788,12036355.906,336.8385314941406
1793138.788,12036355.906,336.9086608886719
1793138.788,12036355.906,336.9789733886719
1793138.788,12036355.906,337.0494995117188
1793138.788,12036355.906,337.1201782226562
1793138.788,12036355.906,337.1910400390625
1793140.642,12036355.906,337.278076171875
1793140.642,12036355.906,337.3652954101562
1793140.642,12036355.906,337.4519958496094
1793140.642,12036357.76,337.5382080078125
1793140.642,12036357.76,337.6239013671875
1793140.642,12036357.76,337.7091064453125
1793140.642,12036357.76,337.7937927246094
1793140.642,12036357.76,337.8779602050781
1793142.496,12036357.76,337.9616394042969
1793142.496,12036357.76,338.0447998046875
1793142.496,12036357.76,338.12744140625
1793142.496,12036359.614,338.2083435058594
1793142.496,12036359.614,338.2826843261719
1793142.496,12036359.614,338.3572998046875
1793142.496,12036359.614,338.4322814941406
1793142.496,12036359.614,338.5075988769531
1793142.496,12036359.614,338.5832214355469
1793144.35,12036359.614,338.6591796875
1793144.35,12036359.614,338.7354431152344
1793144.35,12036361.468,338.8120727539062
1793144.35,12036361.468,338.8890075683594
1793144.35,12036361.468,338.9741821289062
1793144.35,12036361.468,339.0667114257812
1793144.35,12036361.468,339.1583862304688
1793144.35,12036361.468,339.2492370605469
1793146.204,12036361.468,339.3392639160156
1793146.204,12036361.468,339.428466796875
1793146.204,12036361.468,339.516845703125
1793146.204,12036363.322,339.6043701171875
1793146.204,12036363.322,339.6910705566406
1793146.204,12036363.322,339.7769165039062
1793146.204,12036363.322,339.8619384765625
1793146.204,12036363.322,339.9461364746094
1793148.058,12036363.322,340.0100708007812
1793148.058,12036363.322,340.0650329589844
1793148.058,12036363.322,340.1193542480469
1793148.058,12036365.176,340.1730651855469
1793148.058,12036365.176,340.2261657714844
1793148.058,12036365.176,340.2785949707031
1793148.058,12036365.176,340.3304138183594
1793148.058,12036365.176,340.3816223144531
1793148.058,12036365.176,340.4321899414062
1793149.912,12036365.176,340.4825134277344
1793149.912,12036365.176,340.5408020019531
1793149.912,12036367.03,340.5977478027344
1793149.912,12036367.03,340.6532897949219
1793149.912,12036367.03,340.7074890136719
1793149.912,12036367.03,340.7602844238281
1793149.912,12036367.03,340.8117065429688
1793149.912,12036367.03,340.8617553710938
1793151.766,12036367.03,340.9104309082031
1793151.766,12036367.03,340.9577331542969
1793151.766,12036367.03,341.003662109375
1793151.766,12036368.884,341.0482177734375
1793151.766,12036368.884,341.0874938964844
1793151.766,12036368.884,341.1138610839844
1793151.766,12036368.884,341.1397399902344
1793151.766,12036368.884,341.1651306152344
1793153.62,12036368.884,341.1900634765625
1793153.62,12036368.884,341.2145080566406
1793153.62,12036368.884,341.2384948730469
1793153.62,12036370.738,341.261962890625
1793153.62,12036370.738,341.2849731445312
1793153.62,12036370.738,341.3074951171875
1793153.62,12036370.738,341.3206481933594
1793153.62,12036370.738,341.3265686035156
1793153.62,12036370.738,341.3314819335938
1793155.474,12036370.738,341.3353881835938
1793155.474,12036370.738,341.3383178710938
1793155.474,12036372.592,341.3402099609375
1793155.474,12036372.592,341.3411254882812
1793155.474,12036372.592,341.3410034179688
1793155.474,12036372.592,341.3399047851562
1793155.474,12036372.592,341.3377990722656
1793155.474,12036372.592,341.3346862792969
1793157.328,12036372.592,341.33056640625
1793157.328,12036372.592,341.3385925292969
1793157.328,12036372.592,341.3486633300781
1793157.328,12036374.446,341.3570861816406
1793157.328,12036374.446,341.3639221191406
1793157.328,12036374.446,341.3691101074219
1793157.328,12036374.446,341.3727111816406
1793157.328,12036374.446,341.3746643066406
1793159.182,12036374.446,341.3750305175781
1793159.182,12036374.446,341.3737487792969
1793159.182,12036374.446,341.3701477050781
1793159.182,12036376.3,341.3601684570312
1793159.182,12036376.3,341.3488159179688
1793159.182,12036376.3,341.336181640625
1793159.182,12036376.3,341.3222045898438
1793159.182,12036376.3,341.306884765625
1793159.182,12036376.3,341.2902526855469
1793161.036,12036376.3,341.2722778320312
1793161.036,12036376.3,341.2529907226562
1793161.036,12036378.154,341.2323608398438
1793161.036,12036378.154,341.2104187011719
1793161.036,12036378.154,341.1871337890625
1793161.036,12036378.154,341.1684265136719
1793161.036,12036378.154,341.1605224609375
1793161.036,12036378.154,341.1513671875
1793162.89,12036378.154,341.1409606933594
1793162.89,12036378.154,341.1293029785156
1793162.89,12036378.154,341.1164245605469
1793162.89,12036380.008,341.102294921875
1793162.89,12036380.008,341.0869445800781
1793162.89,12036380.008,341.0703125
1793162.89,12036380.008,341.0524597167969
1793162.89,12036380.008,341.0595092773438
1793164.744,12036380.008,341.0802001953125
1793164.744,12036380.008,341.10205078125
1793164.744,12036380.008,341.1250305175781
1793164.744,12036381.862,341.1492004394531
1793164.744,12036381.862,341.1744995117188
1793164.744,12036381.862,341.2009582519531
1793164.744,12036381.862,341.2285766601562
1793164.744,12036381.862,341.2573547363281
1793164.744,12036381.862,341.2872619628906
1793166.598,12036381.862,341.318359375
1793166.598,12036381.862,341.3505859375
1793166.598,12036383.716,341.4489440917969
1793166.598,12036383.716,341.5552062988281
1793166.598,12036383.716,341.6595764160156
1793166.598,12036383.716,341.7620239257812
1793166.598,12036383.716,341.862548828125
1793166.598,12036383.716,341.961181640625
1793168.452,12036383.716,342.057861328125
1793168.452,12036383.716,342.1526184082031
1793168.452,12036383.716,342.2454833984375
1793168.452,12036385.57,342.3386535644531
1793168.452,12036385.57,342.4382934570312
1793168.452,12036385.57,342.5362243652344
1793168.452,12036385.57,342.6324157714844
1793168.452,12036385.57,342.7268371582031
1793170.306,12036385.57,342.8195495605469
1793170.306,12036385.57,342.9105224609375
1793170.306,12036385.57,342.999755859375
1793170.306,12036387.424,343.0872497558594
1793170.306,12036387.424,343.1730041503906
1793170.306,12036387.424,343.2570190429688
1793170.306,12036387.424,343.3392944335938
1793170.306,12036387.424,343.4245300292969
1793170.306,12036387.424,343.5152893066406
1793172.16,12036387.424,343.605224609375
1793172.16,12036387.424,343.6942749023438
1793172.16,12036389.278,343.782470703125
1793172.16,12036389.278,343.8698120117188
1793172.16,12036389.278,343.9562683105469
1793172.16,12036389.278,344.0419006347656
1793172.16,12036389.278,344.1266479492188
1793172.16,12036389.278,344.2105407714844
1793174.014,12036389.278,344.3146057128906
1793174.014,12036389.278,344.42431640625
1793174.014,12036389.278,344.53271484375
1793174.014,12036391.132,344.6398315429688
1793174.014,12036391.132,344.7456665039062
1793174.014,12036391.132,344.8501892089844
1793174.014,12036391.132,344.9534301757812
1793174.014,12036391.132,345.0553588867188
1793175.868,12036391.132,345.1559753417969
1793175.868,12036391.132,345.2553405761719
1793175.868,12036391.132,345.3533935546875
1793175.868,12036392.986,345.4501342773438
1793175.868,12036392.986,345.5662231445312
1793175.868,12036392.986,345.6822509765625
1793175.868,12036392.986,345.7972106933594
1793175.868,12036392.986,345.9111022949219
1793175.868,12036392.986,346.0239868164062
1793177.722,12036392.986,346.1358032226562
1793177.722,12036392.986,346.2465515136719
1793177.722,12036394.84,346.3562927246094
1793177.722,12036394.84,346.4649658203125
1793177.722,12036394.84,346.5807189941406
1793177.722,12036394.84,346.7151794433594
1793177.722,12036394.84,346.8493347167969
1793177.722,12036394.84,346.9832153320312
1793179.576,12036394.84,347.1167602539062
1793179.576,12036394.84,347.25
1793179.576,12036394.84,347.3829650878906
1793179.576,12036396.694,347.5155944824219
1793179.576,12036396.694,347.6479187011719
1793179.576,12036396.694,347.7799377441406
1793179.576,12036396.694,347.9116821289062
1793179.576,12036396.694,348.0430908203125
1793181.43,12036396.694,348.1791687011719
1793181.43,12036396.694,348.3204345703125
1793181.43,12036396.694,348.4620056152344
1793181.43,12036398.548,348.6038818359375
1793181.43,12036398.548,348.74609375
1793181.43,12036398.548,348.8886108398438
1793181.43,12036398.548,349.0314331054688
1793181.43,12036398.548,349.174560546875
1793181.43,12036398.548,349.3180236816406
1793183.284,12036398.548,349.4617919921875
1793183.284,12036398.548,349.6229553222656
1793183.284,12036400.402,349.7868347167969
1793183.284,12036400.402,349.9501647949219
1793183.284,12036400.402,350.1129455566406
1793183.284,12036400.402,350.2751159667969
1793183.284,12036400.402,350.4367065429688
1793183.284,12036400.402,350.5977172851562
1793185.138,12036400.402,350.7581787109375
1793185.138,12036400.402,350.9180297851562
1793185.138,12036400.402,351.0773315429688
1793185.138,12036402.256,351.2360229492188
1793185.138,12036402.256,351.3942260742188
1793185.138,12036402.256,351.5528869628906
1793185.138,12036402.256,351.7108459472656
1793185.138,12036402.256,351.8681030273438
1793186.992,12036402.256,352.024658203125
1793186.992,12036402.256,352.1805114746094
1793186.992,12036402.256,352.3356628417969
1793186.992,12036404.11,352.4901123046875
1793186.992,12036404.11,352.6438903808594
1793186.992,12036404.11,352.7969360351562
1793186.992,12036404.11,352.9390869140625
1793186.992,12036404.11,353.0640869140625
1793186.992,12036404.11,353.1884765625
1793188.846,12036404.11,353.312255859375
1793188.846,12036404.11,353.4353942871094
1793188.846,12036405.964,353.5579223632812
1793188.846,12036405.964,353.6798400878906
1793188.846,12036405.964,353.8011474609375
1793188.846,12036405.964,353.9218139648438
1793188.846,12036405.964,354.0418701171875
1793188.846,12036405.964,354.1613159179688
1793190.7,12036405.964,354.2801513671875
1793190.7,12036405.964,354.3839416503906
1793190.7,12036405.964,354.4776916503906
1793190.7,12036407.818,354.5720520019531
1793190.7,12036407.818,354.6669921875
1793190.7,12036407.818,354.7625122070312
1793190.7,12036407.818,354.858642578125
1793190.7,12036407.818,354.955322265625
1793192.554,12036407.818,355.0525817871094
1793192.554,12036407.818,355.1504516601562
1793192.554,12036407.818,355.2488708496094
1793192.554,12036409.672,355.3410339355469
1793192.554,12036409.672,355.43310546875
1793192.554,12036409.672,355.5256652832031
1793192.554,12036409.672,355.6187133789062
1793192.554,12036409.672,355.7122497558594
1793192.554,12036409.672,355.8062744140625
1793194.408,12036409.672,355.9007568359375
1793194.408,12036409.672,355.9957580566406
1793194.408,12036411.526,356.0912170410156
1793194.408,12036411.526,356.1871643066406
1793194.408,12036411.526,356.2835998535156
1793194.408,12036411.526,356.3804626464844
1793194.408,12036411.526,356.4771423339844
1793194.408,12036411.526,356.5740966796875
1793196.262,12036411.526,356.67138671875
1793196.262,12036411.526,356.7689514160156
1793196.262,12036411.526,356.8668212890625
1793196.262,12036413.38,356.9649658203125
1793196.262,12036413.38,357.0634155273438
1793196.262,12036413.38,357.1621704101562
1793196.262,12036413.38,357.2611999511719
1793196.262,12036413.38,357.3546752929688
1793198.116,12036413.38,357.4417419433594
1793198.116,12036413.38,357.5291748046875
1793198.116,12036413.38,357.616943359375
1793198.116,12036415.234,357.7050476074219
1793198.116,12036415.234,357.7935180664062
1793198.116,12036415.234,357.8823547363281
1793198.116,12036415.234,357.9715270996094
1793198.116,12036415.234,358.0610656738281
1793198.116,12036415.234,358.1509399414062
1793199.97,12036415.234,358.2411499023438
1793199.97,12036415.234,358.3317260742188
1793199.97,12036417.088,358.4146728515625
1793199.97,12036417.088,358.492919921875
1793199.97,12036417.088,358.5701904296875
1793199.97,12036417.088,358.6465454101562
1793199.97,12036417.088,358.721923828125
1793199.97,12036417.088,358.79638671875
1793201.824,12036417.088,358.869873046875
1793201.824,12036417.088,358.9424438476562
1793201.824,12036417.088,359.0140380859375
1793201.824,12036418.942,359.0847778320312
1793201.824,12036418.942,359.165283203125
1793201.824,12036418.942,359.2454528808594
1793201.824,12036418.942,359.3253479003906
1793201.824,12036418.942,359.4049682617188
1793203.678,12036418.942,359.4842529296875
1793203.678,12036418.942,359.5632629394531
1793203.678,12036418.942,359.6419982910156
1793203.678,12036420.796,359.7204284667969
1793203.678,12036420.796,359.7985534667969
1793203.678,12036420.796,359.8763732910156
1793203.678,12036420.796,359.9539184570312
1793203.678,12036420.796,360.03369140625
1793203.678,12036420.796,360.1232299804688
1793205.532,12036420.796,360.2134704589844
1793205.532,12036420.796,360.3044128417969
1793205.532,12036422.65,360.3960266113281
1793205.532,12036422.65,360.4883117675781
1793205.532,12036422.65,360.581298828125
1793205.532,12036422.65,360.6749572753906
1793205.532,12036422.65,360.7693176269531
1793205.532,12036422.65,360.8643493652344
1793207.386,12036422.65,360.9715576171875
1793207.386,12036422.65,361.0888061523438
1793207.386,12036422.65,361.2067260742188
1793207.386,12036424.504,361.3253173828125
1793207.386,12036424.504,361.444580078125
1793207.386,12036424.504,361.5645141601562
1793207.386,12036424.504,361.6851196289062
1793207.386,12036424.504,361.806396484375
1793209.24,12036424.504,361.9283447265625
1793209.24,12036424.504,362.0509643554688
1793209.24,12036424.504,362.1742858886719
1793209.24,12036426.358,362.2982482910156
1793209.24,12036426.358,362.4312744140625
1793209.24,12036426.358,362.5678100585938
1793209.24,12036426.358,362.7051391601562
1793209.24,12036426.358,362.8432006835938
1793209.24,12036426.358,362.9820251464844
1793211.094,12036426.358,363.1216125488281
1793211.094,12036426.358,363.261962890625
1793211.094,12036428.212,363.403076171875
1793211.094,12036428.212,363.544921875
1793211.094,12036428.212,363.685791015625
1793211.094,12036428.212,363.8096618652344
1793211.094,12036428.212,363.933349609375
1793211.094,12036428.212,364.0569152832031
1793212.948,12036428.212,364.1803283691406
1793212.948,12036428.212,364.3035888671875
1793212.948,12036428.212,364.4267272949219
1793212.948,12036430.066,364.5496826171875
1793212.948,12036430.066,364.6725158691406
1793212.948,12036430.066,364.7951965332031
1793212.948,12036430.066,364.9177551269531
1793212.948,12036430.066,365.0401306152344
1793214.802,12036430.066,365.148193359375
1793214.802,12036430.066,365.2225341796875
1793214.802,12036430.066,365.2976684570312
1793214.802,12036431.92,365.3735656738281
1793214.802,12036431.92,365.4502563476562
1793214.802,12036431.92,365.5277099609375
1793214.802,12036431.92,365.6059265136719
1793214.802,12036431.92,365.6849365234375
1793214.802,12036431.92,365.7647399902344
1793216.656,12036431.92,365.8453063964844
1793216.656,12036431.92,365.9239501953125
1793216.656,12036433.774,366.0028991699219
1793216.656,12036433.774,366.0839538574219
1793216.656,12036433.774,366.1670532226562
1793216.656,12036433.774,366.2522277832031
1793216.656,12036433.774,366.3395080566406
1793216.656,12036433.774,366.4288330078125
1793218.51,12036433.774,366.5202331542969
1793218.51,12036433.774,366.6137390136719
1793218.51,12036433.774,366.7092895507812
1793218.51,12036435.628,366.8069152832031
1793218.51,12036435.628,366.9066467285156
1793218.51,12036435.628,367.0088500976562
1793218.51,12036435.628,367.1132507324219
1793218.51,12036435.628,367.2197265625
1793220.364,12036435.628,367.3282470703125
1793220.364,12036435.628,367.4388732910156
1793220.364,12036435.628,367.5515441894531
1793220.364,12036437.482,367.6662902832031
1793220.364,12036437.482,367.7831420898438
1793220.364,12036437.482,367.9020385742188
1793220.364,12036437.482,368.0213317871094
1793220.364,12036437.482,368.1339721679688
1793220.364,12036437.482,368.2472229003906
1793222.218,12036437.482,368.3610229492188
1793222.218,12036437.482,368.4754028320312
1793222.218,12036439.336,368.5903625488281
1793222.218,12036439.336,368.7059020996094
1793222.218,12036439.336,368.822021484375
1793222.218,12036439.336,368.9386901855469
1793222.218,12036439.336,369.0559692382812
1793222.218,12036439.336,369.1737976074219
1793224.072,12036439.336,369.2922058105469
1793224.072,12036439.336,369.4126586914062
1793224.072,12036439.336,369.5355834960938
1793224.072,12036441.19,369.6585083007812
1793224.072,12036441.19,369.7813720703125
1793224.072,12036441.19,369.9042053222656
1793224.072,12036441.19,370.0269775390625
1793224.072,12036441.19,370.1497192382812
1793225.926,12036441.19,370.2723999023438
1793225.926,12036441.19,370.3950500488281
1793225.926,12036441.19,370.5176696777344
1793225.926,12036443.044,370.6379699707031
1793225.926,12036443.044,370.7577209472656
1793225.926,12036443.044,370.8778076171875
1793225.926,12036443.044,370.998291015625
1793225.926,12036443.044,371.119140625
1793225.926,12036443.044,371.2403869628906
1793227.78,12036443.044,371.3619995117188
1793227.78,12036443.044,371.4839782714844
1793227.78,12036444.898,371.6063537597656
1793227.78,12036444.898,371.7290649414062
1793227.78,12036444.898,371.8522033691406
1793227.78,12036444.898,371.9756774902344
1793227.78,12036444.898,372.0858764648438
1793227.78,12036444.898,372.1950378417969
1793229.634,12036444.898,372.3043518066406
1793229.634,12036444.898,372.413818359375
1793229.634,12036444.898,372.5234069824219
1793229.634,12036446.752,372.6331481933594
1793229.634,12036446.752,372.7430419921875
1793229.634,12036446.752,372.8530578613281
1793229.634,12036446.752,372.9632263183594
1793229.634,12036446.752,373.0743408203125
1793231.488,12036446.752,373.1884460449219
1793231.488,12036446.752,373.3036193847656
1793231.488,12036446.752,373.4198913574219
1793231.488,12036448.606,373.5372619628906
1793231.488,12036448.606,373.6557006835938
1793231.488,12036448.606,373.7752380371094
1793231.488,12036448.606,373.8958435058594
1793231.488,12036448.606,374.0175476074219
1793231.488,12036448.606,374.1403198242188
1793233.342,12036448.606,374.2641906738281
1793233.342,12036448.606,374.38916015625
1793233.342,12036450.46,374.5054016113281
1793233.342,12036450.46,374.6107788085938
1793233.342,12036450.46,374.7164611816406
1793233.342,12036450.46,374.8224182128906
1793233.342,12036450.46,374.9286804199219
1793233.342,12036450.46,375.0352783203125
1793235.196,12036450.46,375.1421203613281
1793235.196,12036450.46,375.2492980957031
1793235.196,12036450.46,375.3567810058594
1793235.196,12036452.314,375.4645385742188
1793235.196,12036452.314,375.5586242675781
1793235.196,12036452.314,375.6498107910156
1793235.196,12036452.314,375.7415771484375
1793235.196,12036452.314,375.8339233398438
1793237.05,12036452.314,375.9267883300781
1793237.05,12036452.314,376.0202331542969
1793237.05,12036452.314,376.1142272949219
1793237.05,12036454.168,376.2088012695312
1793237.05,12036454.168,376.3038940429688
1793237.05,12036454.168,376.3995971679688
1793237.05,12036454.168,376.4958190917969
1793237.05,12036454.168,376.592529296875
1793237.05,12036454.168,376.6747436523438
1793238.904,12036454.168,376.7571411132812
1793238.904,12036454.168,376.8397521972656
1793238.904,12036456.022,376.9225158691406
1793238.904,12036456.022,377.0054626464844
1793238.904,12036456.022,377.0885620117188
1793238.904,12036456.022,377.171875
1793238.904,12036456.022,377.25537109375
1793238.904,12036456.022,377.3390197753906
1793240.758,12036456.022,377.4207458496094
1793240.758,12036456.022,377.4996948242188
1793240.758,12036456.022,377.5804443359375
1793240.758,12036457.876,377.6629943847656
1793240.758,12036457.876,377.7473449707031
1793240.758,12036457.876,377.83349609375
1793240.758,12036457.876,377.9214172363281
1793240.758,12036457.876,378.0111389160156
1793242.612,12036457.876,378.1026611328125
1793242.612,12036457.876,378.1959838867188
1793242.612,12036457.876,378.2910766601562
1793242.612,12036459.73,378.3879699707031
1793242.612,12036459.73,378.4853210449219
1793242.612,12036459.73,378.583251953125
1793242.612,12036459.73,378.6828308105469
1793242.612,12036459.73,378.7840881347656
1793242.612,12036459.73,378.8870544433594
1793244.466,12036459.73,378.9916687011719
1793244.466,12036459.73,379.0979614257812
1793244.466,12036461.584,379.2059326171875
1793244.466,12036461.584,379.3155822753906
1793244.466,12036461.584,379.4269104003906
1793244.466,12036461.584,379.5254211425781
1793244.466,12036461.584,379.6231384277344
1793244.466,12036461.584,379.7218627929688
1793246.32,12036461.584,379.8215637207031
1793246.32,12036461.584,379.9222412109375
1793246.32,12036461.584,380.02392578125
1793246.32,12036463.438,380.1265563964844
1793246.32,12036463.438,380.2301940917969
1793246.32,12036463.438,380.3348388671875
1793246.32,12036463.438,380.4404296875
1793246.32,12036463.438,380.5470275878906
1793248.174,12036463.438,380.6531066894531
1793248.174,12036463.438,380.7450866699219
1793248.174,12036463.438,380.8377990722656
1793248.174,12036465.292,380.9312133789062
1793248.174,12036465.292,381.025390625
1793248.174,12036465.292,381.1203002929688
1793248.174,12036465.292,381.2159423828125
1793248.174,12036465.292,381.3123168945312
1793248.174,12036465.292,381.409423828125
1793250.028,12036465.292,381.5072631835938
1793250.028,12036465.292,381.6035461425781
1793250.028,12036467.146,381.6978454589844
1793250.028,12036467.146,381.7932434082031
1793250.028,12036467.146,381.8897705078125
1793250.028,12036467.146,381.9874267578125
1793250.028,12036467.146,382.086181640625
1793250.028,12036467.146,382.1860961914062
1793251.882,12036467.146,382.287109375
1793251.882,12036467.146,382.3892211914062
1793251.882,12036467.146,382.4924926757812
1793251.882,12036469.0,382.5968627929688
1793251.882,12036469.0,382.7023620605469
1793251.882,12036469.0,382.8097229003906
1793251.882,12036469.0,382.9178161621094
1793251.882,12036469.0,383.0259704589844
1793253.736,12036469.0,383.1342468261719
1793253.736,12036469.0,383.2425842285156
1793253.736,12036469.0,383.3510131835938
1793253.736,12036470.854,383.4595031738281
1793253.736,12036470.854,383.568115234375
1793253.736,12036470.854,383.6767883300781
1793253.736,12036470.854,383.7855529785156
1793253.736,12036470.854,383.8622741699219
1793253.736,12036470.854,383.9389953613281
1793255.59,12036470.854,384.0165710449219
1793255.59,12036470.854,384.094970703125
1793255.59,12036472.708,384.1742553710938
1793255.59,12036472.708,384.25439453125
1793255.59,12036472.708,384.3353881835938
1793255.59,12036472.708,384.417236328125
1793255.59,12036472.708,384.4999389648438
1793255.59,12036472.708,384.5834655761719
1793257.444,12036472.708,384.6678771972656
1793257.444,12036472.708,384.7529296875
1793257.444,12036472.708,384.838134765625
1793257.444,12036474.562,384.9249267578125
1793257.444,12036474.562,385.0132446289062
1793257.444,12036474.562,385.1030883789062
1793257.444,12036474.562,385.1945190429688
1793257.444,12036474.562,385.2875061035156
1793259.298,12036474.562,385.3820190429688
1793259.298,12036474.562,385.4780883789062
1793259.298,12036474.562,385.5757141113281
1793259.298,12036476.416,385.6716918945312
1793259.298,12036476.416,385.7662658691406
1793259.298,12036476.416,385.8624267578125
1793259.298,12036476.416,385.960205078125
1793259.298,12036476.416,386.0595703125
1793259.298,12036476.416,386.1605529785156
1793261.152,12036476.416,386.2631530761719
1793261.152,12036476.416,386.3673400878906
1793261.152,12036478.27,386.47314453125
1793261.152,12036478.27,386.58056640625
1793261.152,12036478.27,386.6896057128906
1793261.152,12036478.27,386.8002319335938
1793261.152,12036478.27,386.9294128417969
1793261.152,12036478.27,387.0667114257812
1793263.006,12036478.27,387.2053833007812
1793263.006,12036478.27,387.345458984375
1793263.006,12036478.27,387.4868774414062
1793263.006,12036480.124,387.6296691894531
1793263.006,12036480.124,387.7738647460938
1793263.006,12036480.124,387.91943359375
1793263.006,12036480.124,388.0663757324219
1793263.006,12036480.124,388.2139587402344
1793264.86,12036480.124,388.3511657714844
1793264.86,12036480.124,388.4891662597656
1793264.86,12036480.124,388.6280517578125
1793264.86,12036481.978,388.7677307128906
1793264.86,12036481.978,388.9082641601562
1793264.86,12036481.978,389.0496215820312
1793264.86,12036481.978,389.1918334960938
1793264.86,12036481.978,389.3348693847656
1793264.86,12036481.978,389.4787292480469
1793266.714,12036481.978,389.6234436035156
1793266.714,12036481.978,389.7689819335938
1793266.714,12036483.832,389.9175415039062
1793266.714,12036483.832,390.0729370117188
1793266.714,12036483.832,390.2287292480469
1793266.714,12036483.832,390.3849487304688
1793266.714,12036483.832,390.5415954589844
1793266.714,12036483.832,390.6986694335938
1793268.568,12036483.832,390.8561401367188
1793268.568,12036483.832,391.0140380859375
1793268.568,12036483.832,391.17236328125
1793268.568,12036485.686,391.3311157226562
1793268.568,12036485.686,391.4905700683594
1793268.568,12036485.686,391.650390625
1793268.568,12036485.686,391.8104248046875
1793268.568,12036485.686,391.9705810546875
1793270.422,12036485.686,392.1308898925781
1793270.422,12036485.686,392.2913818359375
1793270.422,12036485.686,392.4519958496094
1793270.422,12036487.54,392.61279296875
1793270.422,12036487.54,392.7737426757812
1793270.422,12036487.54,392.9348449707031
1793270.422,12036487.54,393.0961303710938
1793270.422,12036487.54,393.2575378417969
1793270.422,12036487.54,393.3608703613281
1793272.276,12036487.54,393.4503173828125
1793272.276,12036487.54,393.5402221679688
1793272.276,12036489.394,393.6306457519531
1793272.276,12036489.394,393.7215881347656
1793272.276,12036489.394,393.8130493164062
1793272.276,12036489.394,393.9049682617188
1793272.276,12036489.394,393.9974365234375
1793272.276,12036489.394,394.0903930664062
1793274.13,12036489.394,394.1838684082031
1793274.13,12036489.394,394.2779846191406
1793274.13,12036489.394,394.3726806640625
1793274.13,12036491.248,394.468017578125
1793274.13,12036491.248,394.56396484375
1793274.13,12036491.248,394.6605529785156
1793274.13,12036491.248,394.7577209472656
1793274.13,12036491.248,394.8555297851562
1793275.984,12036491.248,394.9539489746094
1793275.984,12036491.248,395.052978515625
1793275.984,12036491.248,395.1526184082031
1793275.984,12036493.102,395.2528686523438
1793275.984,12036493.102,395.3515319824219
1793275.984,12036493.102,395.4463195800781
1793275.984,12036493.102,395.5414123535156
1793275.984,12036493.102,395.6368408203125
1793275.984,12036493.102,395.7325439453125
1793277.838,12036493.102,395.8285522460938
1793277.838,12036493.102,395.9248962402344
1793277.838,12036494.956,396.0215148925781
1793277.838,12036494.956,396.1184692382812
1793277.838,12036494.956,396.2156982421875
1793277.838,12036494.956,396.3018493652344
1793277.838,12036494.956,396.3823547363281
1793277.838,12036494.956,396.4623413085938
1793279.692,12036494.956,396.5418090820312
1793279.692,12036494.956,396.6207580566406
1793279.692,12036494.956,396.6991882324219
1793279.692,12036496.81,396.7770690917969
1793279.692,12036496.81,396.8544616699219
1793279.692,12036496.81,396.9313049316406
1793279.692,12036496.81,397.0076293945312
1793279.692,12036496.81,397.0834350585938
1793281.546,12036496.81,397.1587219238281
1793281.546,12036496.81,397.2239990234375
1793281.546,12036496.81,397.2878723144531
1793281.546,12036498.664,397.3515930175781
1793281.546,12036498.664,397.4151611328125
1793281.546,12036498.664,397.4785766601562
1793281.546,12036498.664,397.5418395996094
1793281.546,12036498.664,397.6049194335938
1793281.546,12036498.664,397.6678771972656
1793283.4,12036498.664,397.7306518554688
1793283.4,12036498.664,397.7925109863281
1793283.4,12036500.518,397.8517456054688
1793283.4,12036500.518,397.9109802246094
1793283.4,12036500.518,397.9701843261719
1793283.4,12036500.518,398.0293579101562
1793283.4,12036500.518,398.0885314941406
1793283.4,12036500.518,398.1476745605469
1793285.254,12036500.518,398.2068176269531
1793285.254,12036500.518,398.2659301757812
1793285.254,12036500.518,398.3250427246094
1793285.254,12036502.372,398.3841247558594
1793285.254,12036502.372,398.4431762695312
1793285.254,12036502.372,398.5033264160156
1793285.254,12036502.372,398.5653076171875
1793285.254,12036502.372,398.6278076171875
1793287.108,12036502.372,398.6907958984375
1793287.108,12036502.372,398.7543029785156
1793287.108,12036502.372,398.818359375
1793287.108,12036504.226,398.8829040527344
1793287.108,12036504.226,398.9479370117188
1793287.108,12036504.226,399.0135192871094
1793287.108,12036504.226,399.0796203613281
1793287.108,12036504.226,399.1445007324219
1793287.108,12036504.226,399.2100830078125
1793288.962,12036504.226,399.2769775390625
1793288.962,12036504.226,399.34521484375
1793288.962,12036506.08,399.4147338867188
1793288.962,12036506.08,399.485595703125
1793288.962,12036506.08,399.5577697753906
1793288.962,12036506.08,399.6312561035156
1793288.962,12036506.08,399.7060546875
1793288.962,12036506.08,399.7821960449219
1793290.816,12036506.08,399.859619140625
1793290.816,12036506.08,399.9383850097656
1793290.816,12036506.08,400.0274963378906
1793290.816,12036507.934,400.1189575195312
1793290.816,12036507.934,400.2124938964844
1793290.816,12036507.934,400.30810546875
1793290.816,12036507.934,400.4058227539062
1793290.816,12036507.934,400.5056457519531
1793292.67,12036507.934,400.6075439453125
1793292.67,12036507.934,400.7115173339844
1793292.67,12036507.934,400.8175659179688
1793292.67,12036509.788,400.9311218261719
1793292.67,12036509.788,401.0580749511719
1793292.67,12036509.788,401.1861877441406
1793292.67,12036509.788,401.3154602050781
1793292.67,12036509.788,401.4458923339844
1793292.67,12036509.788,401.5775146484375
1793294.524,12036509.788,401.7102661132812
1793294.524,12036509.788,401.8442077636719
1793294.524,12036511.642,401.9792785644531
1793294.524,12036511.642,402.1155395507812
1793294.524,12036511.642,402.2529602050781
1793294.524,12036511.642,402.3915405273438
1793294.524,12036511.642,402.5293579101562
1793294.524,12036511.642,402.6661376953125
1793296.378,12036511.642,402.8036499023438
1793296.378,12036511.642,402.94189453125
1793296.378,12036511.642,403.0808715820312
1793296.378,12036513.496,403.2205505371094
1793296.378,12036513.496,403.3609924316406
1793296.378,12036513.496,403.5021362304688
1793296.378,12036513.496,403.6440124511719
1793296.378,12036513.496,403.78662109375
1793298.232,12036513.496,403.9351196289062
1793298.232,12036513.496,404.0841674804688
1793298.232,12036513.496,404.2327575683594
1793298.232,12036515.35,404.3809509277344
1793298.232,12036515.35,404.5286865234375
1793298.232,12036515.35,404.6759948730469
1793298.232,12036515.35,404.8228759765625
1793298.232,12036515.35,404.9692993164062
1793298.232,12036515.35,405.1153259277344
1793300.086,12036515.35,405.2608947753906
1793300.086,12036515.35,405.4060363769531
1793300.086,12036517.204,405.5506896972656
1793300.086,12036517.204,405.6942749023438
1793300.086,12036517.204,405.8377685546875
1793300.086,12036517.204,405.9811401367188
1793300.086,12036517.204,406.1244201660156
1793300.086,12036517.204,406.267578125
1793301.94,12036517.204,406.41064453125
1793301.94,12036517.204,406.5535888671875
1793301.94,12036517.204,406.6964111328125
1793301.94,12036519.058,406.8391418457031
1793301.94,12036519.058,406.9697570800781
1793301.94,12036519.058,407.0828857421875
1793301.94,12036519.058,407.1972045898438
1793301.94,12036519.058,407.3126831054688
1793303.794,12036519.058,407.4293212890625
1793303.794,12036519.058,407.5471496582031
1793303.794,12036519.058,407.6661071777344
1793303.794,12036520.912,407.7862548828125
1793303.794,12036520.912,407.9075622558594
1793303.794,12036520.912,408.030029296875
1793303.794,12036520.912,408.1536865234375
1793303.794,12036520.912,408.2784729003906
1793303.794,12036520.912,408.4184265136719
1793305.648,12036520.912,408.5696105957031
1793305.648,12036520.912,408.7227783203125
1793305.648,12036522.766,408.8778991699219
1793305.648,12036522.766,409.0350036621094
1793305.648,12036522.766,409.194091796875
1793305.648,12036522.766,409.3551635742188
1793305.648,12036522.766,409.5181884765625
1793305.648,12036522.766,409.6832275390625
1793307.502,12036522.766,409.8502197265625
1793307.502,12036522.766,410.01025390625
1793307.502,12036522.766,410.1716003417969
1793307.502,12036524.62,410.3348083496094
1793307.502,12036524.62,410.4998474121094
1793307.502,12036524.62,410.6667785644531
1793307.502,12036524.62,410.8355712890625
1793307.502,12036524.62,411.0062255859375
1793309.356,12036524.62,411.1787414550781
1793309.356,12036524.62,411.3531188964844
1793309.356,12036524.62,411.5293579101562
1793309.356,12036526.474,411.7074584960938
1793309.356,12036526.474,411.8846435546875
1793309.356,12036526.474,412.0460815429688
1793309.356,12036526.474,412.2086486816406
1793309.356,12036526.474,412.3722839355469
1793309.356,12036526.474,412.5369873046875
1793311.21,12036526.474,412.7027893066406
1793311.21,12036526.474,412.8696899414062
1793311.21,12036528.328,413.0376586914062
1793311.21,12036528.328,413.2067260742188
1793311.21,12036528.328,413.3768615722656
1793311.21,12036528.328,413.5268859863281
1793311.21,12036528.328,413.6558837890625
1793311.21,12036528.328,413.7869873046875
1793313.064,12036528.328,413.9201354980469
1793313.064,12036528.328,414.0553588867188
1793313.064,12036528.328,414.1926574707031
1793313.064,12036530.182,414.3320617675781
1793313.064,12036530.182,414.4735107421875
1793313.064,12036530.182,414.6170349121094
1793313.064,12036530.182,414.7626342773438
1793313.064,12036530.182,414.9103088378906
1793314.918,12036530.182,415.0600280761719
1793314.918,12036530.182,415.1927490234375
1793314.918,12036530.182,415.3189086914062
1793314.918,12036532.036,415.4474182128906
1793314.918,12036532.036,415.5783081054688
1793314.918,12036532.036,415.7115478515625
1793314.918,12036532.036,415.8471374511719
1793314.918,12036532.036,415.985107421875
1793314.918,12036532.036,416.1254272460938
1793316.772,12036532.036,416.2681274414062
1793316.772,12036532.036,416.4130249023438
1793316.772,12036533.89,416.5526733398438
1793316.772,12036533.89,416.6932067871094
1793316.772,12036533.89,416.8346252441406
1793316.772,12036533.89,416.9769592285156
1793316.772,12036533.89,417.1201477050781
1793316.772,12036533.89,417.2642517089844
1793318.626,12036533.89,417.4092407226562
1793318.626,12036533.89,417.5551147460938
1793318.626,12036533.89,417.7018737792969
1793318.626,12036535.744,417.8495178222656
1793318.626,12036535.744,417.9980773925781
1793318.626,12036535.744,418.1430969238281
1793318.626,12036535.744,418.2729797363281
1793318.626,12036535.744,418.4024353027344
1793320.48,12036535.744,418.531494140625
1793320.48,12036535.744,418.6600952148438
1793320.48,12036535.744,418.7882385253906
1793320.48,12036537.598,418.9159851074219
1793320.48,12036537.598,419.0432739257812
1793320.48,12036537.598,419.170166015625
1793320.48,12036537.598,419.2966003417969
1793320.48,12036537.598,419.3995971679688
1793320.48,12036537.598,419.4826354980469
1793322.334,12036537.598,419.562744140625
1793322.334,12036537.598,419.6399230957031
1793322.334,12036539.452,419.7142028808594
1793322.334,12036539.452,419.7855529785156
1793322.334,12036539.452,419.8539733886719
1793322.334,12036539.452,419.9194641113281
1793322.334,12036539.452,419.9820556640625
1793322.334,12036539.452,420.0417175292969
1793324.188,12036539.452,420.0984497070312
1793324.188,12036539.452,420.1522521972656
1793324.188,12036539.452,420.1913146972656
1793324.188,12036541.306,420.2236022949219
1793324.188,12036541.306,420.252685546875
1793324.188,12036541.306,420.278564453125
1793324.188,12036541.306,420.3012390136719
1793324.188,12036541.306,420.3207397460938
1793326.042,12036541.306,420.3370056152344
1793326.042,12036541.306,420.3500671386719
1793326.042,12036541.306,420.3599548339844
1793326.042,12036543.16,420.3628845214844
1793326.042,12036543.16,420.3325805664062
1793326.042,12036543.16,420.3001098632812
1793326.042,12036543.16,420.2654724121094
1793326.042,12036543.16,420.2286682128906
1793326.042,12036543.16,420.1897277832031
1793327.896,12036543.16,420.1486206054688
1793327.896,12036543.16,420.1053466796875
1793327.896,12036545.014,420.0599060058594
1793327.896,12036545.014,420.0122985839844
1793327.896,12036545.014,419.9625244140625
1793327.896,12036545.014,419.9106140136719
1793327.896,12036545.014,419.8499145507812
1793327.896,12036545.014,419.7743225097656
1793329.75,12036545.014,419.6996765136719
1793329.75,12036545.014,419.6259765625
1793329.75,12036545.014,419.5532531738281
1793329.75,12036546.868,419.4814453125
1793329.75,12036546.868,419.4105834960938
1793329.75,12036546.868,419.3406982421875
1793329.75,12036546.868,419.2717590332031
1793329.75,12036546.868,419.2037353515625
1793331.604,12036546.868,419.1289367675781
1793331.604,12036546.868,419.0516357421875
1793331.604,12036546.868,418.9762268066406
1793331.604,12036548.722,418.9027099609375
1793331.604,12036548.722,418.8310546875
1793331.604,12036548.722,418.7612609863281
1793331.604,12036548.722,418.693359375
1793331.604,12036548.722,418.6273193359375
1793331.604,12036548.722,418.5631713867188
1793333.458,12036548.722,418.5008850097656
1793333.458,12036548.722,418.4404602050781
1793333.458,12036550.576,418.3819274902344
1793333.458,12036550.576,418.3283996582031
1793333.458,12036550.576,418.2774353027344
1793333.458,12036550.576,418.2284851074219
1793333.458,12036550.576,418.1816101074219
1793333.458,12036550.576,418.1367797851562
1793335.312,12036550.576,418.093994140625
1793335.312,12036550.576,418.0532531738281
1793335.312,12036550.576,418.0145568847656
1793335.312,12036552.43,417.9779052734375
1793335.312,12036552.43,417.9699401855469
1793335.312,12036552.43,418.0768737792969
1793335.312,12036552.43,418.1886291503906
1793335.312,12036552.43,418.3052368164062
1793337.166,12036552.43,418.4266662597656
1793337.166,12036552.43,418.5529479980469
1793337.166,12036552.43,418.6840515136719
1793337.166,12036554.284,418.8200073242188
1793337.166,12036554.284,418.9607849121094
1793337.166,12036554.284,419.1064147949219
1793337.166,12036554.284,419.2568969726562
1793337.166,12036554.284,419.4122009277344
1793337.166,12036554.284,419.57763671875
1793339.02,12036554.284,419.756591796875
1793339.02,12036554.284,419.941162109375
1793339.02,12036556.138,420.1313781738281
1793339.02,12036556.138,420.3272399902344
1793339.02,12036556.138,420.5287170410156
1793339.02,12036556.138,420.73583984375
1793339.02,12036556.138,420.9485778808594
1793339.02,12036556.138,421.1669616699219
1793340.874,12036556.138,421.3909606933594
1793340.874,12036556.138,421.6301879882812
1793340.874,12036556.138,421.8770446777344
1793340.874,12036557.992,422.1277770996094
1793340.874,12036557.992,422.3824462890625
1793340.874,12036557.992,422.6410217285156
1793340.874,12036557.992,422.9035034179688
1793340.874,12036557.992,423.1698913574219
1793342.728,12036557.992,423.440185546875
1793342.728,12036557.992,423.7144165039062
1793342.728,12036557.992,423.9925537109375
1793342.728,12036559.846,424.2745971679688
1793342.728,12036559.846,424.5605773925781
1793342.728,12036559.846,424.8491821289062
1793342.728,12036559.846,425.1380310058594
1793342.728,12036559.846,425.4270935058594
1793342.728,12036559.846,425.7163391113281
1793344.582,12036559.846,426.0057678222656
1793344.582,12036559.846,426.2954406738281
1793344.582,12036561.7,426.5852661132812
1793344.582,12036561.7,426.8753356933594
1793344.582,12036561.7,427.1655883789062
1793344.582,12036561.7,427.4409790039062
1793344.582,12036561.7,427.6747436523438
1793344.582,12036561.7,427.9045715332031
1793346.436,12036561.7,428.1304626464844
1793346.436,12036561.7,428.3524169921875
1793346.436,12036561.7,428.5704345703125
1793346.436,12036563.554,428.7845153808594
1793346.436,12036563.554,428.99462890625
1793346.436,12036563.554,429.2008056640625
1793346.436,12036563.554,429.4030456542969
1793346.436,12036563.554,429.6013488769531
1793348.29,12036563.554,429.7957153320312
1793348.29,12036563.554,429.9798583984375
1793348.29,12036563.554,430.1530456542969
1793348.29,12036565.408,430.3219909667969
1793348.29,12036565.408,430.4867248535156
1793348.29,12036565.408,430.6472473144531
1793348.29,12036565.408,430.8035583496094
1793348.29,12036565.408,430.9556274414062
1793348.29,12036565.408,431.1034851074219
1793350.144,12036565.408,431.2471313476562
1793350.144,12036565.408,431.3865661621094
1793350.144,12036567.262,431.5141296386719
1793350.144,12036567.262,431.6375122070312
1793350.144,12036567.262,431.758544921875
1793350.144,12036567.262,431.8772277832031
1793350.144,12036567.262,431.9935607910156
1793350.144,12036567.262,432.1075744628906
1793351.998,12036567.262,432.21923828125
1793351.998,12036567.262,432.3285827636719
1793351.998,12036567.262,432.435546875
1793351.998,12036569.116,432.5401916503906
1793351.998,12036569.116,432.6425170898438
1793351.998,12036569.116,432.7425537109375
1793351.998,12036569.116,432.8444519042969
1793351.998,12036569.116,432.9451293945312
1793353.852,12036569.116,433.0445251464844
1793353.852,12036569.116,433.1426696777344
1793353.852,12036569.116,433.2395629882812
1793353.852,12036570.97,433.3351745605469
1793353.852,12036570.97,433.4295349121094
1793353.852,12036570.97,433.5226440429688
1793353.852,12036570.97,433.614501953125
1793353.852,12036570.97,433.7048034667969
1793353.852,12036570.97,433.793212890625
1793355.706,12036570.97,433.8801574707031
1793355.706,12036570.97,433.9656982421875
1793355.706,12036572.824,434.0497436523438
1793355.706,12036572.824,434.1323852539062
1793355.706,12036572.824,434.2135620117188
1793355.706,12036572.824,434.2933044433594
1793355.706,12036572.824,434.3716125488281
1793355.706,12036572.824,434.4484558105469
1793357.56,12036572.824,434.5238647460938
1793357.56,12036572.824,434.5978393554688
1793357.56,12036572.824,434.6708679199219
1793357.56,12036574.678,434.7430725097656
1793357.56,12036574.678,434.8141479492188
1793357.56,12036574.678,434.8840942382812
1793357.56,12036574.678,434.952880859375
1793357.56,12036574.678,435.0205383300781
1793359.414,12036574.678,435.0870361328125
1793359.414,12036574.678,435.1524047851562
1793359.414,12036574.678,435.2166442871094
1793359.414,12036576.532,435.2797241210938
1793359.414,12036576.532,435.3379516601562
1793359.414,12036576.532,435.3945922851562
1793359.414,12036576.532,435.4500122070312
1793359.414,12036576.532,435.5042114257812
1793359.414,12036576.532,435.5571594238281
1793361.268,12036576.532,435.6089172363281
1793361.268,12036576.532,435.659423828125
1793361.268,12036578.386,435.708740234375
1793361.268,12036578.386,435.7568359375
1793361.268,12036578.386,435.8036804199219
1793361.268,12036578.386,435.8493041992188
1793361.268,12036578.386,435.8951110839844
1793361.268,12036578.386,435.9512939453125
1793363.122,12036578.386,436.0064086914062
1793363.122,12036578.386,436.0604553222656
1793363.122,12036578.386,436.1134643554688
1793363.122,12036580.24,436.1653747558594
1793363.122,12036580.24,436.2162170410156
1793363.122,12036580.24,436.2660217285156
1793363.122,12036580.24,436.3147277832031
1793363.122,12036580.24,436.3623962402344
1793364.976,12036580.24,436.4079284667969
1793364.976,12036580.24,436.4508972167969
1793364.976,12036580.24,436.4924011230469
1793364.976,12036582.094,436.5325317382812
1793364.976,12036582.094,436.5712280273438
1793364.976,12036582.094,436.6084899902344
1793364.976,12036582.094,436.6443481445312
1793364.976,12036582.094,436.6788024902344
1793364.976,12036582.094,436.7118530273438
1793366.83,12036582.094,436.7434692382812
1793366.83,12036582.094,436.773681640625
1793366.83,12036583.948,436.8024597167969
1793366.83,12036583.948,436.836669921875
1793366.83,12036583.948,436.8738403320312
1793366.83,12036583.948,436.9103698730469
1793366.83,12036583.948,436.9462585449219
1793366.83,12036583.948,436.9815063476562
1793368.684,12036583.948,437.0161437988281
1793368.684,12036583.948,437.0501403808594
1793368.684,12036583.948,437.08349609375
1793368.684,12036585.802,437.1162414550781
1793368.684,12036585.802,437.1483154296875
1793368.684,12036585.802,437.2098999023438
1793368.684,12036585.802,437.2711181640625
1793368.684,12036585.802,437.3316650390625
1793370.538,12036585.802,437.3916015625
1793370.538,12036585.802,437.4508666992188
1793370.538,12036585.802,437.5094604492188
1793370.538,12036587.656,437.5674133300781
1793370.538,12036587.656,437.6247253417969
1793370.538,12036587.656,437.681396484375
1793370.538,12036587.656,437.7373962402344
1793370.538,12036587.656,437.792724609375
1793370.538,12036587.656,437.8496704101562
1793372.392,12036587.656,437.9153442382812
1793372.392,12036587.656,437.9800109863281
1793372.392,12036589.51,438.043701171875
1793372.392,12036589.51,438.1064147949219
1793372.392,12036589.51,438.1681518554688
1793372.392,12036589.51,438.2289123535156
1793372.392,12036589.51,438.2886657714844
1793372.392,12036589.51,438.3474731445312
1793374.246,12036589.51,438.4052734375
1793374.246,12036589.51,438.4608459472656
1793374.246,12036589.51,438.5143127441406
1793374.246,12036591.364,438.5668334960938
1793374.246,12036591.364,438.6183776855469
1793374.246,12036591.364,438.6689758300781
1793374.246,12036591.364,438.7185974121094
1793374.246,12036591.364,438.7672424316406
1793376.1,12036591.364,438.81494140625
1793376.1,12036591.364,438.8616943359375
1793376.1,12036591.364,438.9074401855469
1793376.1,12036593.218,438.9522399902344
1793376.1,12036593.218,438.99609375
1793376.1,12036593.218,439.0487365722656
1793376.1,12036593.218,439.1041259765625
1793376.1,12036593.218,439.1587219238281
1793376.1,12036593.218,439.2125244140625
1793377.954,12036593.218,439.2655029296875
1793377.954,12036593.218,439.3176879882812
1793377.954,12036595.072,439.3690795898438
1793377.954,12036595.072,439.419677734375
1793377.954,12036595.072,439.469482421875
1793377.954,12036595.072,439.5182495117188
1793377.954,12036595.072,439.5638427734375
1793377.954,12036595.072,439.6091003417969
1793379.808,12036595.072,439.6540222167969
1793379.808,12036595.072,439.6986083984375
1793379.808,12036595.072,439.7428588867188
1793379.808,12036596.926,439.7867431640625
1793379.808,12036596.926,439.830322265625
1793379.808,12036596.926,439.87353515625
1793379.808,12036596.926,439.9164428710938
1793379.808,12036596.926,439.958984375
1793381.662,12036596.926,440.0011901855469
1793381.662,12036596.926,440.0448608398438
1793381.662,12036596.926,440.093017578125
1793381.662,12036598.78,440.1410217285156
1793381.662,12036598.78,440.1889038085938
1793381.662,12036598.78,440.2366027832031
1793381.662,12036598.78,440.2842102050781
1793381.662,12036598.78,440.3316345214844
1793381.662,12036598.78,440.3789367675781
